8.500000E+00 1.044922E+00 4.287109E+00
8.500000E+00 1.040039E+00 4.462891E+00
5.000000E+00 1.044922E+00 4.638672E+00
5.000000E+00 1.044922E+00 4.838867E+00
5.000000E+00 1.044922E+00 5.053711E+00
5.000000E+00 1.049805E+00 5.214844E+00
5.000000E+00 1.044922E+00 5.312500E+00
5.000000E+00 1.044922E+00 5.356445E+00
5.000000E+00 1.044922E+00 5.332031E+00
5.000000E+00 1.044922E+00 5.283203E+00
5.000000E+00 1.044922E+00 5.224609E+00
5.000000E+00 1.044922E+00 5.122070E+00
6.000000E+00 1.044922E+00 5.053711E+00
6.000000E+00 1.040039E+00 4.980469E+00
6.000000E+00 1.044922E+00 4.892578E+00
6.000000E+00 1.040039E+00 4.843750E+00
6.000000E+00 1.044922E+00 4.799805E+00
6.000000E+00 1.044922E+00 4.794922E+00
6.000000E+00 1.044922E+00 4.790039E+00
6.000000E+00 1.044922E+00 4.804688E+00
6.000000E+00 1.044922E+00 4.829102E+00
4.500000E+00 1.044922E+00 4.838867E+00
4.500000E+00 1.044922E+00 4.838867E+00
4.500000E+00 1.035156E+00 4.868164E+00
4.500000E+00 1.044922E+00 4.868164E+00
4.500000E+00 1.040039E+00 4.848633E+00
4.500000E+00 1.044922E+00 4.790039E+00
4.500000E+00 1.044922E+00 4.750977E+00
6.500000E+00 1.044922E+00 4.711914E+00
6.500000E+00 1.044922E+00 4.682617E+00
6.500000E+00 1.044922E+00 4.633789E+00
6.500000E+00 1.040039E+00 4.599609E+00
6.500000E+00 1.044922E+00 4.589844E+00
6.500000E+00 1.044922E+00 4.604492E+00
6.500000E+00 1.044922E+00 4.648438E+00
6.500000E+00 1.044922E+00 4.687500E+00
6.500000E+00 1.044922E+00 4.746094E+00
6.500000E+00 1.044922E+00 4.819336E+00
5.000000E+00 1.044922E+00 4.863281E+00
5.000000E+00 1.044922E+00 4.936523E+00
5.000000E+00 1.044922E+00 4.980469E+00
5.000000E+00 1.040039E+00 5.024414E+00
5.000000E+00 1.044922E+00 5.058594E+00
5.000000E+00 1.040039E+00 5.043945E+00
5.000000E+00 1.049805E+00 4.990234E+00
5.000000E+00 1.040039E+00 4.941406E+00
5.000000E+00 1.044922E+00 4.887695E+00
5.000000E+00 1.044922E+00 4.829102E+00
5.000000E+00 1.040039E+00 4.794922E+00
7.500000E+00 1.040039E+00 4.746094E+00
7.500000E+00 1.044922E+00 4.711914E+00
7.500000E+00 1.044922E+00 4.687500E+00
7.500000E+00 1.044922E+00 4.667969E+00
7.500000E+00 1.044922E+00 4.702148E+00
7.500000E+00 1.044922E+00 4.746094E+00
7.500000E+00 1.040039E+00 4.819336E+00
7.500000E+00 1.040039E+00 4.897461E+00
7.500000E+00 1.049805E+00 5.014648E+00
7.500000E+00 1.044922E+00 5.126953E+00
7.500000E+00 1.049805E+00 5.214844E+00
6.000000E+00 1.044922E+00 5.317383E+00
6.000000E+00 1.044922E+00 5.390625E+00
6.000000E+00 1.044922E+00 5.449219E+00
6.000000E+00 1.044922E+00 5.502930E+00
6.000000E+00 1.044922E+00 5.673828E+00
8.000000E+00 1.044922E+00 5.541992E+00
8.000000E+00 1.044922E+00 5.512695E+00
8.000000E+00 1.044922E+00 5.454102E+00
8.000000E+00 1.044922E+00 5.405273E+00
8.000000E+00 1.040039E+00 5.385742E+00
8.000000E+00 1.044922E+00 5.424805E+00
8.000000E+00 1.044922E+00 5.478516E+00
8.000000E+00 1.040039E+00 5.556641E+00
8.000000E+00 1.044922E+00 5.605469E+00
8.000000E+00 1.044922E+00 5.688477E+00
0.000000E+00 1.044922E+00 5.756836E+00
0.000000E+00 1.044922E+00 5.810547E+00
0.000000E+00 1.049805E+00 5.839844E+00
0.000000E+00 1.040039E+00 5.854492E+00
0.000000E+00 1.044922E+00 5.844727E+00
0.000000E+00 1.044922E+00 5.747070E+00
0.000000E+00 1.044922E+00 5.615234E+00
0.000000E+00 1.044922E+00 5.458984E+00
0.000000E+00 1.044922E+00 5.312500E+00
1.000000E+00 1.044922E+00 5.175781E+00
1.000000E+00 1.044922E+00 5.029297E+00
1.000000E+00 1.044922E+00 4.916992E+00
1.000000E+00 1.049805E+00 4.814453E+00
1.000000E+00 1.040039E+00 4.726562E+00
1.000000E+00 1.040039E+00 4.648438E+00
1.000000E+00 1.040039E+00 4.589844E+00
1.000000E+00 1.044922E+00 4.545898E+00
1.000000E+00 1.044922E+00 4.501953E+00
1.000000E+00 1.044922E+00 4.453125E+00
1.000000E+00 1.040039E+00 4.414062E+00
0.000000E+00 1.040039E+00 4.370117E+00
0.000000E+00 1.044922E+00 4.345703E+00
0.000000E+00 1.040039E+00 4.311523E+00
5.000000E-01 1.044922E+00 4.291992E+00
5.000000E-01 1.049805E+00 4.282227E+00
5.000000E-01 1.044922E+00 4.262695E+00
5.000000E-01 1.044922E+00 4.243164E+00
5.000000E-01 1.044922E+00 4.238281E+00
0.000000E+00 1.044922E+00 4.233398E+00
0.000000E+00 1.044922E+00 4.228516E+00
0.000000E+00 1.044922E+00 4.228516E+00
0.000000E+00 1.044922E+00 4.199219E+00
0.000000E+00 1.049805E+00 4.194336E+00
0.000000E+00 1.044922E+00 4.184570E+00
0.000000E+00 1.049805E+00 4.179688E+00
0.000000E+00 1.044922E+00 4.174805E+00
0.000000E+00 1.040039E+00 4.189453E+00
0.000000E+00 1.044922E+00 4.189453E+00
0.000000E+00 1.040039E+00 4.174805E+00
0.000000E+00 1.044922E+00 4.179688E+00
0.000000E+00 1.044922E+00 4.179688E+00
0.000000E+00 1.044922E+00 4.169922E+00
0.000000E+00 1.040039E+00 4.165039E+00
0.000000E+00 1.040039E+00 4.169922E+00
0.000000E+00 1.044922E+00 4.165039E+00
2.000000E+00 1.044922E+00 4.140625E+00
2.000000E+00 1.044922E+00 4.155273E+00
2.000000E+00 1.044922E+00 4.125977E+00
2.000000E+00 1.044922E+00 4.130859E+00
2.000000E+00 1.044922E+00 4.116211E+00
2.000000E+00 1.044922E+00 4.121094E+00
2.000000E+00 1.044922E+00 4.111328E+00
0.000000E+00 1.040039E+00 4.125977E+00
0.000000E+00 1.044922E+00 4.096680E+00
0.000000E+00 1.044922E+00 4.121094E+00
0.000000E+00 1.044922E+00 4.116211E+00
0.000000E+00 1.044922E+00 4.116211E+00
0.000000E+00 1.044922E+00 4.101562E+00
0.000000E+00 1.040039E+00 4.106445E+00
0.000000E+00 1.044922E+00 4.096680E+00
0.000000E+00 1.040039E+00 4.106445E+00
0.000000E+00 1.044922E+00 4.101562E+00
0.000000E+00 1.044922E+00 4.086914E+00
0.000000E+00 1.044922E+00 4.101562E+00
0.000000E+00 1.044922E+00 4.111328E+00
0.000000E+00 1.044922E+00 4.091797E+00
0.000000E+00 1.044922E+00 4.096680E+00
0.000000E+00 1.044922E+00 4.091797E+00
0.000000E+00 1.044922E+00 4.096680E+00
0.000000E+00 1.044922E+00 4.091797E+00
0.000000E+00 1.044922E+00 4.096680E+00
0.000000E+00 1.044922E+00 4.101562E+00
1.500000E+00 1.040039E+00 4.106445E+00
1.500000E+00 1.044922E+00 4.116211E+00
1.500000E+00 1.044922E+00 4.101562E+00
1.500000E+00 1.044922E+00 4.101562E+00
1.500000E+00 1.049805E+00 4.091797E+00
0.000000E+00 1.044922E+00 4.101562E+00
0.000000E+00 1.044922E+00 4.091797E+00
0.000000E+00 1.040039E+00 4.096680E+00
0.000000E+00 1.044922E+00 4.101562E+00
0.000000E+00 1.044922E+00 4.091797E+00
0.000000E+00 1.044922E+00 4.096680E+00
0.000000E+00 1.044922E+00 4.101562E+00
0.000000E+00 1.044922E+00 4.096680E+00
0.000000E+00 1.044922E+00 4.101562E+00
0.000000E+00 1.044922E+00 4.091797E+00
0.000000E+00 1.044922E+00 4.082031E+00
1.000000E+00 1.044922E+00 4.091797E+00
1.000000E+00 1.044922E+00 4.106445E+00
1.000000E+00 1.044922E+00 4.116211E+00
1.000000E+00 1.044922E+00 4.125977E+00
1.000000E+00 1.044922E+00 4.125977E+00
1.000000E+00 1.044922E+00 4.116211E+00
1.000000E+00 1.049805E+00 4.111328E+00
1.000000E+00 1.044922E+00 4.111328E+00
5.000000E-01 1.044922E+00 4.101562E+00
5.000000E-01 1.044922E+00 4.096680E+00
5.000000E-01 1.044922E+00 4.096680E+00
2.500000E+00 1.044922E+00 4.101562E+00
2.500000E+00 1.044922E+00 4.101562E+00
2.500000E+00 1.044922E+00 4.106445E+00
0.000000E+00 1.044922E+00 4.111328E+00
0.000000E+00 1.040039E+00 4.125977E+00
0.000000E+00 1.044922E+00 4.116211E+00
0.000000E+00 1.040039E+00 4.116211E+00
0.000000E+00 1.044922E+00 4.111328E+00
0.000000E+00 1.044922E+00 4.111328E+00
0.000000E+00 1.044922E+00 4.121094E+00
0.000000E+00 1.040039E+00 4.106445E+00
0.000000E+00 1.044922E+00 4.106445E+00
0.000000E+00 1.044922E+00 4.111328E+00
3.500000E+00 1.044922E+00 4.096680E+00
3.500000E+00 1.044922E+00 4.106445E+00
3.500000E+00 1.040039E+00 4.106445E+00
3.500000E+00 1.044922E+00 4.106445E+00
3.500000E+00 1.044922E+00 4.116211E+00
3.500000E+00 1.044922E+00 4.116211E+00
3.500000E+00 1.044922E+00 4.106445E+00
3.500000E+00 1.044922E+00 4.121094E+00
3.500000E+00 1.044922E+00 4.116211E+00
3.500000E+00 1.044922E+00 4.121094E+00
0.000000E+00 1.044922E+00 4.111328E+00
0.000000E+00 1.044922E+00 4.121094E+00
0.000000E+00 1.049805E+00 4.135742E+00
0.000000E+00 1.040039E+00 4.125977E+00
0.000000E+00 1.044922E+00 4.125977E+00
3.500000E+00 1.044922E+00 4.116211E+00
3.500000E+00 1.049805E+00 4.111328E+00
3.500000E+00 1.044922E+00 4.106445E+00
3.500000E+00 1.040039E+00 4.101562E+00
3.500000E+00 1.044922E+00 4.096680E+00
0.000000E+00 1.044922E+00 4.101562E+00
0.000000E+00 1.044922E+00 4.101562E+00
0.000000E+00 1.040039E+00 4.101562E+00
0.000000E+00 1.040039E+00 4.091797E+00
0.000000E+00 1.044922E+00 4.086914E+00
0.000000E+00 1.044922E+00 4.077148E+00
0.000000E+00 1.044922E+00 4.086914E+00
0.000000E+00 1.044922E+00 4.077148E+00
0.000000E+00 1.044922E+00 4.072266E+00
0.000000E+00 1.044922E+00 4.057617E+00
0.000000E+00 1.040039E+00 4.067383E+00
5.500000E+00 1.044922E+00 4.072266E+00
5.500000E+00 1.040039E+00 4.077148E+00
5.500000E+00 1.044922E+00 4.086914E+00
5.500000E+00 1.040039E+00 4.086914E+00
5.500000E+00 1.044922E+00 4.096680E+00
5.500000E+00 1.044922E+00 4.116211E+00
5.500000E+00 1.044922E+00 4.155273E+00
5.500000E+00 1.044922E+00 4.208984E+00
5.500000E+00 1.044922E+00 4.248047E+00
5.500000E+00 1.044922E+00 4.316406E+00
5.500000E+00 1.044922E+00 4.375000E+00
5.500000E+00 1.049805E+00 4.409180E+00
3.000000E+00 1.040039E+00 4.462891E+00
3.000000E+00 1.044922E+00 4.487305E+00
3.000000E+00 1.044922E+00 4.516602E+00
3.000000E+00 1.044922E+00 4.545898E+00
3.000000E+00 1.044922E+00 4.545898E+00
3.000000E+00 1.044922E+00 4.541016E+00
3.000000E+00 1.044922E+00 4.516602E+00
5.500000E+00 1.044922E+00 4.492188E+00
5.500000E+00 1.044922E+00 4.453125E+00
5.500000E+00 1.040039E+00 4.404297E+00
5.500000E+00 1.044922E+00 4.379883E+00
5.500000E+00 1.049805E+00 4.370117E+00
5.500000E+00 1.040039E+00 4.355469E+00
5.500000E+00 1.044922E+00 4.365234E+00
5.500000E+00 1.044922E+00 4.404297E+00
1.500000E+00 1.044922E+00 4.443359E+00
1.500000E+00 1.044922E+00 4.482422E+00
1.500000E+00 1.044922E+00 4.521484E+00
1.500000E+00 1.044922E+00 4.550781E+00
1.500000E+00 1.044922E+00 4.555664E+00
1.500000E+00 1.044922E+00 4.541016E+00
1.500000E+00 1.049805E+00 4.521484E+00
1.500000E+00 1.040039E+00 4.467773E+00
5.500000E+00 1.049805E+00 4.443359E+00
5.500000E+00 1.044922E+00 4.414062E+00
5.500000E+00 1.044922E+00 4.375000E+00
5.500000E+00 1.040039E+00 4.340820E+00
5.500000E+00 1.044922E+00 4.345703E+00
5.500000E+00 1.044922E+00 4.345703E+00
5.500000E+00 1.040039E+00 4.355469E+00
5.500000E+00 1.044922E+00 4.394531E+00
5.500000E+00 1.044922E+00 4.433594E+00
5.500000E+00 1.044922E+00 4.477539E+00
5.500000E+00 1.044922E+00 4.526367E+00
5.000000E-01 1.040039E+00 4.560547E+00
5.000000E-01 1.044922E+00 4.575195E+00
5.000000E-01 1.044922E+00 4.609375E+00
5.000000E-01 1.044922E+00 4.614258E+00
5.000000E-01 1.040039E+00 4.628906E+00
5.000000E-01 1.040039E+00 4.604492E+00
5.000000E-01 1.040039E+00 4.575195E+00
5.000000E-01 1.049805E+00 4.541016E+00
5.000000E-01 1.040039E+00 4.482422E+00
5.000000E-01 1.044922E+00 4.433594E+00
5.000000E-01 1.044922E+00 4.409180E+00
4.500000E+00 1.044922E+00 4.389648E+00
4.500000E+00 1.044922E+00 4.350586E+00
4.500000E+00 1.044922E+00 4.335938E+00
3.000000E+00 1.044922E+00 4.311523E+00
3.000000E+00 1.044922E+00 4.296875E+00
3.000000E+00 1.040039E+00 4.282227E+00
3.000000E+00 1.049805E+00 4.272461E+00
3.000000E+00 1.040039E+00 4.277344E+00
3.000000E+00 1.044922E+00 4.262695E+00
3.000000E+00 1.044922E+00 4.262695E+00
6.500000E+00 1.044922E+00 4.243164E+00
6.500000E+00 1.044922E+00 4.238281E+00
6.500000E+00 1.044922E+00 4.223633E+00
6.500000E+00 1.044922E+00 4.218750E+00
6.500000E+00 1.040039E+00 4.233398E+00
6.500000E+00 1.040039E+00 4.277344E+00
6.500000E+00 1.044922E+00 4.335938E+00
6.500000E+00 1.044922E+00 4.423828E+00
6.500000E+00 1.040039E+00 4.497070E+00
6.500000E+00 1.040039E+00 4.594727E+00
6.500000E+00 1.044922E+00 4.677734E+00
6.500000E+00 1.040039E+00 4.775391E+00
4.000000E+00 1.044922E+00 4.833984E+00
4.000000E+00 1.044922E+00 4.868164E+00
4.000000E+00 1.040039E+00 4.907227E+00
4.000000E+00 1.040039E+00 4.951172E+00
4.000000E+00 1.040039E+00 4.965820E+00
4.000000E+00 1.044922E+00 4.926758E+00
4.000000E+00 1.044922E+00 4.873047E+00
4.000000E+00 1.044922E+00 4.829102E+00
4.000000E+00 1.044922E+00 4.750977E+00
4.000000E+00 1.044922E+00 4.692383E+00
4.000000E+00 1.044922E+00 4.638672E+00
4.000000E+00 1.044922E+00 4.570312E+00
7.500000E+00 1.044922E+00 4.516602E+00
7.500000E+00 1.044922E+00 4.477539E+00
7.500000E+00 1.044922E+00 4.443359E+00
5.000000E+00 1.044922E+00 4.414062E+00
5.000000E+00 1.044922E+00 4.458008E+00
5.000000E+00 1.044922E+00 4.511719E+00
5.000000E+00 1.044922E+00 4.570312E+00
5.000000E+00 1.044922E+00 4.643555E+00
7.000000E+00 1.044922E+00 4.697266E+00
7.000000E+00 1.044922E+00 4.731445E+00
7.000000E+00 1.044922E+00 4.726562E+00
7.000000E+00 1.044922E+00 4.721680E+00
7.000000E+00 1.040039E+00 4.746094E+00
7.000000E+00 1.044922E+00 4.785156E+00
7.000000E+00 1.044922E+00 4.848633E+00
7.000000E+00 1.044922E+00 4.912109E+00
7.000000E+00 1.044922E+00 5.004883E+00
7.000000E+00 1.044922E+00 5.068359E+00
7.000000E+00 1.040039E+00 5.141602E+00
7.000000E+00 1.044922E+00 5.200195E+00
3.000000E+00 1.040039E+00 5.263672E+00
3.000000E+00 1.044922E+00 5.292969E+00
3.000000E+00 1.044922E+00 5.351562E+00
3.000000E+00 1.044922E+00 5.380859E+00
3.000000E+00 1.040039E+00 5.341797E+00
6.500000E+00 1.040039E+00 5.283203E+00
6.500000E+00 1.044922E+00 5.195312E+00
6.500000E+00 1.040039E+00 5.092773E+00
6.500000E+00 1.040039E+00 5.014648E+00
6.500000E+00 1.044922E+00 4.936523E+00
3.500000E+00 1.044922E+00 4.902344E+00
3.500000E+00 1.044922E+00 4.916992E+00
3.500000E+00 1.044922E+00 4.965820E+00
3.500000E+00 1.044922E+00 4.970703E+00
3.500000E+00 1.049805E+00 4.965820E+00
3.500000E+00 1.044922E+00 4.916992E+00
3.500000E+00 1.044922E+00 4.873047E+00
3.500000E+00 1.044922E+00 4.804688E+00
3.500000E+00 1.044922E+00 4.746094E+00
3.500000E+00 1.044922E+00 4.672852E+00
3.500000E+00 1.044922E+00 4.599609E+00
4.000000E+00 1.049805E+00 4.550781E+00
4.000000E+00 1.040039E+00 4.501953E+00
4.000000E+00 1.040039E+00 4.453125E+00
4.000000E+00 1.049805E+00 4.409180E+00
4.000000E+00 1.044922E+00 4.375000E+00
4.000000E+00 1.044922E+00 4.316406E+00
4.000000E+00 1.044922E+00 4.340820E+00
4.000000E+00 1.044922E+00 4.340820E+00
4.000000E+00 1.044922E+00 4.335938E+00
4.000000E+00 1.044922E+00 4.326172E+00
4.000000E+00 1.044922E+00 4.316406E+00
4.000000E+00 1.049805E+00 4.306641E+00
1.500000E+00 1.044922E+00 4.291992E+00
1.500000E+00 1.040039E+00 4.282227E+00
1.500000E+00 1.040039E+00 4.277344E+00
1.500000E+00 1.044922E+00 4.257812E+00
2.500000E+00 1.044922E+00 4.248047E+00
2.500000E+00 1.040039E+00 4.233398E+00
2.500000E+00 1.044922E+00 4.233398E+00
2.500000E+00 1.044922E+00 4.228516E+00
2.500000E+00 1.044922E+00 4.228516E+00
2.500000E+00 1.044922E+00 4.213867E+00
2.500000E+00 1.044922E+00 4.208984E+00
2.500000E+00 1.049805E+00 4.199219E+00
2.500000E+00 1.044922E+00 4.199219E+00
2.500000E+00 1.049805E+00 4.208984E+00
2.500000E+00 1.044922E+00 4.204102E+00
1.500000E+00 1.044922E+00 4.199219E+00
1.500000E+00 1.040039E+00 4.199219E+00
1.500000E+00 1.044922E+00 4.213867E+00
3.000000E+00 1.040039E+00 4.213867E+00
3.000000E+00 1.044922E+00 4.208984E+00
3.000000E+00 1.044922E+00 4.189453E+00
3.000000E+00 1.044922E+00 4.194336E+00
3.000000E+00 1.044922E+00 4.189453E+00
3.000000E+00 1.044922E+00 4.184570E+00
3.000000E+00 1.044922E+00 4.174805E+00
3.000000E+00 1.040039E+00 4.155273E+00
2.500000E+00 1.044922E+00 4.160156E+00
2.500000E+00 1.044922E+00 4.150391E+00
2.500000E+00 1.040039E+00 4.165039E+00
2.500000E+00 1.044922E+00 4.169922E+00
2.500000E+00 1.044922E+00 4.165039E+00
2.500000E+00 1.044922E+00 4.155273E+00
2.500000E+00 1.040039E+00 4.155273E+00
2.500000E+00 1.044922E+00 4.130859E+00
2.500000E+00 1.044922E+00 4.145508E+00
2.500000E+00 1.044922E+00 4.145508E+00
2.500000E+00 1.044922E+00 4.160156E+00
2.500000E+00 1.044922E+00 4.145508E+00
2.500000E+00 1.044922E+00 4.145508E+00
2.500000E+00 1.040039E+00 4.135742E+00
2.500000E+00 1.044922E+00 4.150391E+00
2.500000E+00 1.044922E+00 4.160156E+00
2.500000E+00 1.040039E+00 4.165039E+00
2.500000E+00 1.044922E+00 4.150391E+00
2.500000E+00 1.044922E+00 4.135742E+00
2.500000E+00 1.040039E+00 4.145508E+00
2.000000E+00 1.044922E+00 4.135742E+00
2.000000E+00 1.044922E+00 4.135742E+00
2.000000E+00 1.044922E+00 4.145508E+00
3.000000E+00 1.044922E+00 4.145508E+00
3.000000E+00 1.044922E+00 4.155273E+00
3.000000E+00 1.040039E+00 4.145508E+00
3.000000E+00 1.044922E+00 4.150391E+00
3.000000E+00 1.044922E+00 4.150391E+00
3.000000E+00 1.044922E+00 4.140625E+00
3.000000E+00 1.044922E+00 4.116211E+00
3.000000E+00 1.044922E+00 4.116211E+00
3.000000E+00 1.044922E+00 4.121094E+00
3.000000E+00 1.044922E+00 4.106445E+00
3.000000E+00 1.044922E+00 4.106445E+00
5.000000E-01 1.040039E+00 4.106445E+00
5.000000E-01 1.044922E+00 4.121094E+00
5.000000E-01 1.044922E+00 4.135742E+00
5.000000E-01 1.044922E+00 4.130859E+00
3.000000E+00 1.044922E+00 4.135742E+00
3.000000E+00 1.044922E+00 4.140625E+00
3.000000E+00 1.044922E+00 4.130859E+00
3.000000E+00 1.044922E+00 4.135742E+00
3.000000E+00 1.044922E+00 4.145508E+00
3.000000E+00 1.044922E+00 4.155273E+00
1.500000E+00 1.040039E+00 4.160156E+00
1.500000E+00 1.044922E+00 4.165039E+00
1.500000E+00 1.040039E+00 4.165039E+00
1.500000E+00 1.040039E+00 4.169922E+00
1.500000E+00 1.044922E+00 4.145508E+00
1.500000E+00 1.040039E+00 4.155273E+00
1.500000E+00 1.044922E+00 4.140625E+00
1.500000E+00 1.040039E+00 4.145508E+00
1.500000E+00 1.044922E+00 4.140625E+00
1.500000E+00 1.044922E+00 4.125977E+00
1.500000E+00 1.044922E+00 4.116211E+00
1.500000E+00 1.040039E+00 4.121094E+00
3.500000E+00 1.044922E+00 4.121094E+00
3.500000E+00 1.044922E+00 4.130859E+00
3.500000E+00 1.040039E+00 4.135742E+00
3.500000E+00 1.044922E+00 4.135742E+00
3.500000E+00 1.044922E+00 4.145508E+00
3.500000E+00 1.044922E+00 4.145508E+00
3.500000E+00 1.044922E+00 4.140625E+00
3.500000E+00 1.040039E+00 4.145508E+00
1.500000E+00 1.049805E+00 4.145508E+00
1.500000E+00 1.044922E+00 4.145508E+00
1.500000E+00 1.044922E+00 4.140625E+00
1.500000E+00 1.040039E+00 4.140625E+00
4.000000E+00 1.044922E+00 4.140625E+00
4.000000E+00 1.044922E+00 4.121094E+00
4.000000E+00 1.044922E+00 4.111328E+00
4.000000E+00 1.044922E+00 4.086914E+00
1.500000E+00 1.049805E+00 4.106445E+00
1.500000E+00 1.040039E+00 4.106445E+00
1.500000E+00 1.044922E+00 4.116211E+00
1.500000E+00 1.044922E+00 4.116211E+00
1.500000E+00 1.040039E+00 4.121094E+00
1.500000E+00 1.044922E+00 4.125977E+00
1.500000E+00 1.044922E+00 4.111328E+00
1.500000E+00 1.044922E+00 4.130859E+00
2.500000E+00 1.044922E+00 4.130859E+00
2.500000E+00 1.040039E+00 4.125977E+00
2.500000E+00 1.044922E+00 4.125977E+00
2.500000E+00 1.040039E+00 4.121094E+00
2.500000E+00 1.044922E+00 4.111328E+00
1.500000E+00 1.040039E+00 4.106445E+00
1.500000E+00 1.049805E+00 4.106445E+00
1.500000E+00 1.044922E+00 4.091797E+00
1.500000E+00 1.044922E+00 4.106445E+00
3.500000E+00 1.044922E+00 4.106445E+00
3.500000E+00 1.044922E+00 4.096680E+00
3.500000E+00 1.044922E+00 4.096680E+00
3.500000E+00 1.044922E+00 4.096680E+00
3.500000E+00 1.044922E+00 4.101562E+00
3.500000E+00 1.044922E+00 4.111328E+00
0.000000E+00 1.044922E+00 4.116211E+00
0.000000E+00 1.049805E+00 4.106445E+00
0.000000E+00 1.044922E+00 4.111328E+00
4.500000E+00 1.044922E+00 4.106445E+00
4.500000E+00 1.044922E+00 4.101562E+00
4.500000E+00 1.049805E+00 4.101562E+00
4.500000E+00 1.044922E+00 4.091797E+00
4.500000E+00 1.044922E+00 4.096680E+00
4.500000E+00 1.040039E+00 4.106445E+00
4.500000E+00 1.044922E+00 4.106445E+00
4.500000E+00 1.044922E+00 4.116211E+00
4.500000E+00 1.044922E+00 4.135742E+00
7.500000E+00 1.044922E+00 4.140625E+00
7.500000E+00 1.044922E+00 4.155273E+00
7.500000E+00 1.044922E+00 4.179688E+00
7.500000E+00 1.044922E+00 4.199219E+00
7.500000E+00 1.040039E+00 4.262695E+00
7.500000E+00 1.044922E+00 4.360352E+00
1.050000E+01 1.040039E+00 4.467773E+00
1.050000E+01 1.044922E+00 4.619141E+00
1.050000E+01 1.040039E+00 4.755859E+00
1.050000E+01 1.049805E+00 4.916992E+00
8.000000E+00 1.044922E+00 5.087891E+00
8.000000E+00 1.044922E+00 5.341797E+00
8.000000E+00 1.040039E+00 5.561523E+00
8.000000E+00 1.044922E+00 5.791016E+00
8.000000E+00 1.040039E+00 5.986328E+00
8.000000E+00 1.044922E+00 6.132812E+00
9.500000E+00 1.044922E+00 6.230469E+00
9.500000E+00 1.044922E+00 6.279297E+00
9.500000E+00 1.040039E+00 6.289062E+00
9.500000E+00 1.049805E+00 6.298828E+00
7.000000E+00 1.044922E+00 6.303711E+00
7.000000E+00 1.044922E+00 6.372070E+00
7.000000E+00 1.044922E+00 6.474609E+00
7.000000E+00 1.044922E+00 6.533203E+00
7.000000E+00 1.044922E+00 6.591797E+00
7.000000E+00 1.044922E+00 6.582031E+00
7.000000E+00 1.040039E+00 6.562500E+00
7.000000E+00 1.044922E+00 6.464844E+00
7.000000E+00 1.044922E+00 6.381836E+00
7.000000E+00 1.044922E+00 6.274414E+00
7.000000E+00 1.040039E+00 6.191406E+00
7.000000E+00 1.044922E+00 6.113281E+00
9.500000E+00 1.040039E+00 6.054688E+00
9.500000E+00 1.044922E+00 5.986328E+00
9.500000E+00 1.040039E+00 5.932617E+00
9.500000E+00 1.044922E+00 5.898438E+00
9.500000E+00 1.044922E+00 5.932617E+00
9.500000E+00 1.044922E+00 6.005859E+00
9.500000E+00 1.040039E+00 6.118164E+00
9.500000E+00 1.049805E+00 6.269531E+00
9.500000E+00 1.044922E+00 6.401367E+00
9.500000E+00 1.040039E+00 6.523438E+00
9.500000E+00 1.049805E+00 6.660156E+00
6.500000E+00 1.044922E+00 6.743164E+00
6.500000E+00 1.044922E+00 6.821289E+00
6.500000E+00 1.044922E+00 6.948242E+00
6.500000E+00 1.044922E+00 6.997070E+00
6.500000E+00 1.040039E+00 6.987305E+00
9.500000E+00 1.044922E+00 6.938477E+00
9.500000E+00 1.040039E+00 6.811523E+00
9.500000E+00 1.040039E+00 6.650391E+00
9.500000E+00 1.044922E+00 6.518555E+00
9.500000E+00 1.044922E+00 6.445312E+00
9.500000E+00 1.044922E+00 6.435547E+00
5.500000E+00 1.044922E+00 6.533203E+00
5.500000E+00 1.044922E+00 6.577148E+00
5.500000E+00 1.044922E+00 6.655273E+00
5.500000E+00 1.040039E+00 6.713867E+00
5.500000E+00 1.044922E+00 6.708984E+00
9.000000E+00 1.049805E+00 6.606445E+00
9.000000E+00 1.044922E+00 6.508789E+00
9.000000E+00 1.040039E+00 6.357422E+00
9.000000E+00 1.044922E+00 6.230469E+00
9.000000E+00 1.044922E+00 6.152344E+00
9.000000E+00 1.044922E+00 6.166992E+00
9.000000E+00 1.040039E+00 6.181641E+00
7.000000E+00 1.044922E+00 6.210938E+00
7.000000E+00 1.049805E+00 6.303711E+00
7.000000E+00 1.040039E+00 6.386719E+00
7.000000E+00 1.049805E+00 6.459961E+00
7.000000E+00 1.040039E+00 6.508789E+00
7.000000E+00 1.044922E+00 6.494141E+00
7.000000E+00 1.044922E+00 6.450195E+00
7.000000E+00 1.044922E+00 6.381836E+00
7.000000E+00 1.044922E+00 6.333008E+00
7.000000E+00 1.040039E+00 6.269531E+00
7.000000E+00 1.044922E+00 6.240234E+00
1.050000E+01 1.044922E+00 6.196289E+00
1.050000E+01 1.044922E+00 6.137695E+00
1.050000E+01 1.040039E+00 6.108398E+00
1.050000E+01 1.040039E+00 6.103516E+00
6.500000E+00 1.044922E+00 6.137695E+00
6.500000E+00 1.044922E+00 6.245117E+00
6.500000E+00 1.044922E+00 6.352539E+00
6.500000E+00 1.040039E+00 6.508789E+00
6.500000E+00 1.044922E+00 6.611328E+00
6.500000E+00 1.044922E+00 6.625977E+00
6.500000E+00 1.044922E+00 6.577148E+00
6.500000E+00 1.040039E+00 6.503906E+00
6.500000E+00 1.044922E+00 6.420898E+00
6.500000E+00 1.044922E+00 6.308594E+00
6.500000E+00 1.049805E+00 6.206055E+00
1.000000E+01 1.044922E+00 6.123047E+00
1.000000E+01 1.044922E+00 6.059570E+00
1.000000E+01 1.044922E+00 5.986328E+00
1.000000E+01 1.044922E+00 5.976562E+00
1.000000E+01 1.040039E+00 6.010742E+00
1.000000E+01 1.044922E+00 6.147461E+00
1.000000E+01 1.044922E+00 6.333008E+00
5.500000E+00 1.040039E+00 6.523438E+00
5.500000E+00 1.044922E+00 6.708984E+00
5.500000E+00 1.049805E+00 6.875000E+00
9.500000E+00 1.044922E+00 6.977539E+00
9.500000E+00 1.044922E+00 7.001953E+00
9.500000E+00 1.044922E+00 6.953125E+00
8.000000E+00 1.044922E+00 6.860352E+00
8.000000E+00 1.040039E+00 6.777344E+00
8.000000E+00 1.044922E+00 6.796875E+00
8.500000E+00 1.040039E+00 6.796875E+00
8.500000E+00 1.044922E+00 6.806641E+00
8.500000E+00 1.035156E+00 6.767578E+00
8.500000E+00 1.040039E+00 6.757812E+00
8.500000E+00 1.040039E+00 6.767578E+00
8.500000E+00 1.044922E+00 6.757812E+00
5.500000E+00 1.044922E+00 6.767578E+00
5.500000E+00 1.044922E+00 6.772461E+00
5.500000E+00 1.040039E+00 6.762695E+00
5.500000E+00 1.044922E+00 6.752930E+00
5.500000E+00 1.044922E+00 6.704102E+00
5.500000E+00 1.044922E+00 6.611328E+00
5.500000E+00 1.040039E+00 6.464844E+00
5.500000E+00 1.044922E+00 6.323242E+00
5.500000E+00 1.035156E+00 6.196289E+00
5.500000E+00 1.049805E+00 6.054688E+00
5.500000E+00 1.040039E+00 5.922852E+00
8.000000E+00 1.044922E+00 5.795898E+00
8.000000E+00 1.044922E+00 5.708008E+00
8.000000E+00 1.044922E+00 5.625000E+00
8.000000E+00 1.044922E+00 5.566406E+00
8.000000E+00 1.044922E+00 5.541992E+00
8.000000E+00 1.044922E+00 5.576172E+00
8.000000E+00 1.044922E+00 5.664062E+00
8.000000E+00 1.040039E+00 5.751953E+00
8.000000E+00 1.044922E+00 5.810547E+00
8.000000E+00 1.044922E+00 5.898438E+00
8.000000E+00 1.044922E+00 5.957031E+00
0.000000E+00 1.040039E+00 6.030273E+00
0.000000E+00 1.044922E+00 6.079102E+00
0.000000E+00 1.044922E+00 6.108398E+00
0.000000E+00 1.044922E+00 6.132812E+00
0.000000E+00 1.044922E+00 6.093750E+00
0.000000E+00 1.049805E+00 6.010742E+00
2.000000E+00 1.044922E+00 5.878906E+00
2.000000E+00 1.044922E+00 5.742188E+00
2.000000E+00 1.044922E+00 5.605469E+00
2.000000E+00 1.044922E+00 5.488281E+00
2.000000E+00 1.044922E+00 5.336914E+00
2.000000E+00 1.044922E+00 5.234375E+00
2.000000E+00 1.044922E+00 5.131836E+00
0.000000E+00 1.040039E+00 5.034180E+00
0.000000E+00 1.044922E+00 4.956055E+00
0.000000E+00 1.044922E+00 4.868164E+00
0.000000E+00 1.040039E+00 4.809570E+00
0.000000E+00 1.044922E+00 4.746094E+00
0.000000E+00 1.044922E+00 4.707031E+00
0.000000E+00 1.044922E+00 4.658203E+00
0.000000E+00 1.040039E+00 4.628906E+00
0.000000E+00 1.044922E+00 4.604492E+00
0.000000E+00 1.044922E+00 4.570312E+00
0.000000E+00 1.044922E+00 4.550781E+00
0.000000E+00 1.040039E+00 4.545898E+00
1.500000E+00 1.044922E+00 4.536133E+00
1.500000E+00 1.044922E+00 4.506836E+00
1.500000E+00 1.044922E+00 4.511719E+00
1.500000E+00 1.044922E+00 4.492188E+00
1.500000E+00 1.044922E+00 4.472656E+00
1.500000E+00 1.044922E+00 4.477539E+00
1.500000E+00 1.044922E+00 4.467773E+00
1.500000E+00 1.044922E+00 4.458008E+00
1.500000E+00 1.040039E+00 4.458008E+00
1.500000E+00 1.040039E+00 4.462891E+00
1.500000E+00 1.040039E+00 4.453125E+00
0.000000E+00 1.044922E+00 4.448242E+00
0.000000E+00 1.044922E+00 4.433594E+00
0.000000E+00 1.040039E+00 4.428711E+00
0.000000E+00 1.044922E+00 4.409180E+00
0.000000E+00 1.044922E+00 4.418945E+00
0.000000E+00 1.044922E+00 4.418945E+00
0.000000E+00 1.044922E+00 4.404297E+00
0.000000E+00 1.044922E+00 4.394531E+00
0.000000E+00 1.044922E+00 4.379883E+00
0.000000E+00 1.044922E+00 4.389648E+00
1.000000E+00 1.044922E+00 4.389648E+00
1.000000E+00 1.044922E+00 4.384766E+00
1.000000E+00 1.044922E+00 4.379883E+00
1.000000E+00 1.040039E+00 4.375000E+00
1.000000E+00 1.044922E+00 4.394531E+00
1.000000E+00 1.040039E+00 4.389648E+00
1.000000E+00 1.044922E+00 4.394531E+00
1.000000E+00 1.044922E+00 4.394531E+00
1.000000E+00 1.040039E+00 4.379883E+00
1.000000E+00 1.044922E+00 4.379883E+00
1.000000E+00 1.044922E+00 4.375000E+00
1.000000E+00 1.044922E+00 4.379883E+00
0.000000E+00 1.044922E+00 4.379883E+00
0.000000E+00 1.044922E+00 4.375000E+00
0.000000E+00 1.044922E+00 4.384766E+00
0.000000E+00 1.044922E+00 4.399414E+00
0.000000E+00 1.044922E+00 4.399414E+00
0.000000E+00 1.044922E+00 4.409180E+00
0.000000E+00 1.044922E+00 4.404297E+00
0.000000E+00 1.044922E+00 4.399414E+00
0.000000E+00 1.044922E+00 4.389648E+00
0.000000E+00 1.049805E+00 4.375000E+00
0.000000E+00 1.044922E+00 4.375000E+00
0.000000E+00 1.044922E+00 4.360352E+00
7.500000E+00 1.044922E+00 4.365234E+00
7.500000E+00 1.044922E+00 4.375000E+00
7.500000E+00 1.044922E+00 4.360352E+00
7.500000E+00 1.044922E+00 4.365234E+00
7.500000E+00 1.044922E+00 4.414062E+00
7.500000E+00 1.044922E+00 4.482422E+00
5.500000E+00 1.040039E+00 4.570312E+00
5.500000E+00 1.049805E+00 4.702148E+00
5.500000E+00 1.040039E+00 4.858398E+00
5.500000E+00 1.044922E+00 4.990234E+00
5.500000E+00 1.040039E+00 5.097656E+00
5.500000E+00 1.044922E+00 5.175781E+00
5.500000E+00 1.040039E+00 5.200195E+00
5.500000E+00 1.044922E+00 5.195312E+00
6.500000E+00 1.040039E+00 5.195312E+00
6.500000E+00 1.044922E+00 5.180664E+00
6.500000E+00 1.044922E+00 5.161133E+00
6.500000E+00 1.044922E+00 5.156250E+00
6.500000E+00 1.044922E+00 5.151367E+00
6.500000E+00 1.040039E+00 5.161133E+00
6.500000E+00 1.044922E+00 5.190430E+00
6.500000E+00 1.044922E+00 5.209961E+00
6.500000E+00 1.040039E+00 5.239258E+00
6.500000E+00 1.044922E+00 5.283203E+00
6.500000E+00 1.044922E+00 5.297852E+00
6.000000E+00 1.044922E+00 5.336914E+00
6.000000E+00 1.040039E+00 5.380859E+00
6.000000E+00 1.049805E+00 5.400391E+00
6.000000E+00 1.040039E+00 5.415039E+00
6.000000E+00 1.044922E+00 5.400391E+00
6.000000E+00 1.044922E+00 5.385742E+00
6.000000E+00 1.044922E+00 5.380859E+00
6.000000E+00 1.044922E+00 5.380859E+00
6.000000E+00 1.044922E+00 5.351562E+00
8.000000E+00 1.040039E+00 5.356445E+00
8.000000E+00 1.040039E+00 5.346680E+00
8.000000E+00 1.040039E+00 5.336914E+00
8.000000E+00 1.049805E+00 5.327148E+00
8.000000E+00 1.044922E+00 5.380859E+00
8.000000E+00 1.044922E+00 5.454102E+00
8.000000E+00 1.044922E+00 5.522461E+00
8.000000E+00 1.044922E+00 5.620117E+00
8.000000E+00 1.044922E+00 5.708008E+00
5.000000E+00 1.044922E+00 5.805664E+00
5.000000E+00 1.044922E+00 5.903320E+00
5.000000E+00 1.044922E+00 5.966797E+00
5.000000E+00 1.044922E+00 6.035156E+00
5.000000E+00 1.044922E+00 6.040039E+00
5.000000E+00 1.044922E+00 6.005859E+00
5.000000E+00 1.044922E+00 5.937500E+00
5.000000E+00 1.044922E+00 5.820312E+00
5.000000E+00 1.044922E+00 5.708008E+00
5.000000E+00 1.044922E+00 5.595703E+00
5.000000E+00 1.044922E+00 5.502930E+00
5.000000E+00 1.044922E+00 5.415039E+00
8.500000E+00 1.044922E+00 5.332031E+00
8.500000E+00 1.049805E+00 5.253906E+00
8.500000E+00 1.049805E+00 5.195312E+00
8.500000E+00 1.040039E+00 5.156250E+00
3.500000E+00 1.044922E+00 5.175781E+00
3.500000E+00 1.049805E+00 5.258789E+00
3.500000E+00 1.040039E+00 5.380859E+00
3.500000E+00 1.044922E+00 5.483398E+00
3.500000E+00 1.044922E+00 5.551758E+00
3.500000E+00 1.044922E+00 5.537109E+00
3.500000E+00 1.044922E+00 5.478516E+00
3.500000E+00 1.044922E+00 5.375977E+00
3.500000E+00 1.044922E+00 5.292969E+00
3.500000E+00 1.044922E+00 5.195312E+00
3.500000E+00 1.044922E+00 5.097656E+00
2.000000E+00 1.044922E+00 5.019531E+00
2.000000E+00 1.044922E+00 4.931641E+00
2.000000E+00 1.044922E+00 4.863281E+00
2.000000E+00 1.040039E+00 4.785156E+00
2.000000E+00 1.044922E+00 4.731445E+00
2.000000E+00 1.044922E+00 4.687500E+00
2.000000E+00 1.044922E+00 4.643555E+00
2.000000E+00 1.044922E+00 4.604492E+00
2.000000E+00 1.044922E+00 4.560547E+00
2.000000E+00 1.044922E+00 4.531250E+00
2.000000E+00 1.044922E+00 4.521484E+00
0.000000E+00 1.044922E+00 4.482422E+00
0.000000E+00 1.044922E+00 4.487305E+00
0.000000E+00 1.040039E+00 4.477539E+00
0.000000E+00 1.044922E+00 4.458008E+00
0.000000E+00 1.044922E+00 4.453125E+00
2.500000E+00 1.044922E+00 4.433594E+00
2.500000E+00 1.040039E+00 4.428711E+00
2.500000E+00 1.044922E+00 4.423828E+00
2.500000E+00 1.044922E+00 4.423828E+00
2.500000E+00 1.044922E+00 4.418945E+00
2.500000E+00 1.040039E+00 4.409180E+00
2.500000E+00 1.044922E+00 4.399414E+00
5.000000E-01 1.049805E+00 4.384766E+00
5.000000E-01 1.044922E+00 4.389648E+00
5.000000E-01 1.040039E+00 4.379883E+00
5.000000E-01 1.044922E+00 4.375000E+00
5.000000E-01 1.044922E+00 4.375000E+00
5.000000E-01 1.040039E+00 4.375000E+00
5.000000E-01 1.044922E+00 4.384766E+00
2.500000E+00 1.049805E+00 4.384766E+00
2.500000E+00 1.049805E+00 4.370117E+00
2.500000E+00 1.040039E+00 4.375000E+00
2.500000E+00 1.044922E+00 4.370117E+00
2.500000E+00 1.044922E+00 4.384766E+00
2.500000E+00 1.044922E+00 4.375000E+00
2.500000E+00 1.044922E+00 4.384766E+00
2.000000E+00 1.044922E+00 4.365234E+00
2.000000E+00 1.044922E+00 4.379883E+00
2.000000E+00 1.044922E+00 4.370117E+00
2.000000E+00 1.044922E+00 4.360352E+00
2.000000E+00 1.044922E+00 4.345703E+00
2.500000E+00 1.044922E+00 4.355469E+00
2.500000E+00 1.044922E+00 4.365234E+00
2.500000E+00 1.044922E+00 4.365234E+00
0.000000E+00 1.044922E+00 4.360352E+00
0.000000E+00 1.044922E+00 4.365234E+00
0.000000E+00 1.044922E+00 4.355469E+00
0.000000E+00 1.040039E+00 4.365234E+00
0.000000E+00 1.044922E+00 4.350586E+00
0.000000E+00 1.040039E+00 4.345703E+00
0.000000E+00 1.044922E+00 4.335938E+00
0.000000E+00 1.040039E+00 4.365234E+00
0.000000E+00 1.044922E+00 4.345703E+00
3.500000E+00 1.044922E+00 4.360352E+00
3.500000E+00 1.044922E+00 4.345703E+00
3.500000E+00 1.044922E+00 4.350586E+00
3.500000E+00 1.044922E+00 4.345703E+00
3.500000E+00 1.040039E+00 4.331055E+00
3.500000E+00 1.044922E+00 4.335938E+00
3.500000E+00 1.044922E+00 4.335938E+00
3.500000E+00 1.044922E+00 4.326172E+00
3.500000E+00 1.044922E+00 4.340820E+00
3.500000E+00 1.040039E+00 4.331055E+00
5.000000E-01 1.044922E+00 4.331055E+00
5.000000E-01 1.044922E+00 4.321289E+00
5.000000E-01 1.044922E+00 4.321289E+00
5.000000E-01 1.040039E+00 4.321289E+00
3.000000E+00 1.044922E+00 4.321289E+00
3.000000E+00 1.040039E+00 4.316406E+00
3.000000E+00 1.044922E+00 4.311523E+00
5.000000E-01 1.044922E+00 4.301758E+00
5.000000E-01 1.044922E+00 4.301758E+00
5.000000E-01 1.044922E+00 4.296875E+00
5.000000E-01 1.044922E+00 4.287109E+00
5.000000E-01 1.044922E+00 4.282227E+00
5.000000E-01 1.044922E+00 4.272461E+00
5.000000E-01 1.040039E+00 4.262695E+00
5.000000E-01 1.044922E+00 4.248047E+00
3.500000E+00 1.044922E+00 4.272461E+00
3.500000E+00 1.049805E+00 4.277344E+00
3.500000E+00 1.044922E+00 4.277344E+00
3.500000E+00 1.040039E+00 4.272461E+00
3.500000E+00 1.044922E+00 4.282227E+00
3.500000E+00 1.044922E+00 4.277344E+00
3.500000E+00 1.044922E+00 4.282227E+00
3.500000E+00 1.044922E+00 4.267578E+00
3.500000E+00 1.044922E+00 4.262695E+00
3.500000E+00 1.044922E+00 4.257812E+00
3.500000E+00 1.044922E+00 4.262695E+00
3.500000E+00 1.040039E+00 4.252930E+00
5.000000E-01 1.040039E+00 4.257812E+00
5.000000E-01 1.049805E+00 4.252930E+00
5.000000E-01 1.040039E+00 4.248047E+00
5.000000E-01 1.044922E+00 4.248047E+00
5.000000E-01 1.044922E+00 4.248047E+00
5.000000E-01 1.044922E+00 4.252930E+00
5.000000E-01 1.044922E+00 4.267578E+00
5.000000E-01 1.040039E+00 4.272461E+00
5.000000E-01 1.044922E+00 4.277344E+00
2.500000E+00 1.044922E+00 4.272461E+00
2.500000E+00 1.044922E+00 4.267578E+00
2.500000E+00 1.049805E+00 4.248047E+00
2.500000E+00 1.044922E+00 4.257812E+00
2.500000E+00 1.040039E+00 4.262695E+00
2.500000E+00 1.044922E+00 4.257812E+00
2.500000E+00 1.040039E+00 4.262695E+00
1.000000E+00 1.044922E+00 4.262695E+00
1.000000E+00 1.044922E+00 4.252930E+00
1.000000E+00 1.049805E+00 4.252930E+00
1.000000E+00 1.044922E+00 4.257812E+00
1.000000E+00 1.044922E+00 4.252930E+00
1.000000E+00 1.044922E+00 4.248047E+00
1.000000E+00 1.044922E+00 4.243164E+00
1.000000E+00 1.044922E+00 4.233398E+00
1.000000E+00 1.044922E+00 4.238281E+00
1.000000E+00 1.044922E+00 4.248047E+00
2.000000E+00 1.044922E+00 4.248047E+00
2.000000E+00 1.040039E+00 4.257812E+00
2.000000E+00 1.044922E+00 4.252930E+00
2.000000E+00 1.044922E+00 4.257812E+00
2.000000E+00 1.044922E+00 4.262695E+00
2.000000E+00 1.040039E+00 4.252930E+00
2.000000E+00 1.044922E+00 4.233398E+00
2.000000E+00 1.040039E+00 4.238281E+00
2.000000E+00 1.044922E+00 4.233398E+00
2.000000E+00 1.040039E+00 4.228516E+00
1.500000E+00 1.044922E+00 4.204102E+00
1.500000E+00 1.040039E+00 4.208984E+00
1.500000E+00 1.044922E+00 4.208984E+00
1.500000E+00 1.040039E+00 4.218750E+00
1.500000E+00 1.040039E+00 4.218750E+00
1.500000E+00 1.049805E+00 4.233398E+00
1.500000E+00 1.044922E+00 4.228516E+00
1.500000E+00 1.040039E+00 4.233398E+00
1.500000E+00 1.044922E+00 4.228516E+00
1.500000E+00 1.044922E+00 4.243164E+00
1.500000E+00 1.040039E+00 4.243164E+00
1.500000E+00 1.040039E+00 4.248047E+00
1.500000E+00 1.044922E+00 4.238281E+00
1.500000E+00 1.044922E+00 4.228516E+00
1.500000E+00 1.044922E+00 4.243164E+00
1.500000E+00 1.044922E+00 4.233398E+00
1.500000E+00 1.049805E+00 4.252930E+00
1.500000E+00 1.044922E+00 4.257812E+00
1.500000E+00 1.044922E+00 4.248047E+00
1.500000E+00 1.044922E+00 4.248047E+00
1.500000E+00 1.044922E+00 4.252930E+00
1.500000E+00 1.044922E+00 4.257812E+00
1.500000E+00 1.040039E+00 4.262695E+00
1.500000E+00 1.044922E+00 4.243164E+00
2.000000E+00 1.044922E+00 4.257812E+00
2.000000E+00 1.044922E+00 4.262695E+00
2.000000E+00 1.044922E+00 4.243164E+00
2.000000E+00 1.040039E+00 4.252930E+00
1.000000E+00 1.044922E+00 4.248047E+00
1.000000E+00 1.044922E+00 4.257812E+00
1.000000E+00 1.040039E+00 4.252930E+00
1.000000E+00 1.044922E+00 4.248047E+00
3.500000E+00 1.044922E+00 4.238281E+00
3.500000E+00 1.044922E+00 4.248047E+00
3.500000E+00 1.044922E+00 4.257812E+00
3.500000E+00 1.044922E+00 4.257812E+00
3.500000E+00 1.044922E+00 4.267578E+00
1.000000E+00 1.040039E+00 4.272461E+00
1.000000E+00 1.044922E+00 4.267578E+00
1.000000E+00 1.044922E+00 4.272461E+00
1.000000E+00 1.044922E+00 4.262695E+00
1.000000E+00 1.044922E+00 4.257812E+00
1.000000E+00 1.049805E+00 4.257812E+00
1.000000E+00 1.040039E+00 4.257812E+00
1.000000E+00 1.044922E+00 4.257812E+00
1.000000E+00 1.044922E+00 4.272461E+00
1.000000E+00 1.044922E+00 4.262695E+00
1.000000E+00 1.040039E+00 4.291992E+00
1.000000E+00 1.044922E+00 4.287109E+00
3.000000E+00 1.044922E+00 4.277344E+00
3.000000E+00 1.044922E+00 4.291992E+00
3.000000E+00 1.040039E+00 4.287109E+00
3.000000E+00 1.044922E+00 4.287109E+00
3.000000E+00 1.044922E+00 4.291992E+00
3.000000E+00 1.049805E+00 4.277344E+00
3.000000E+00 1.040039E+00 4.262695E+00
3.000000E+00 1.044922E+00 4.267578E+00
3.000000E+00 1.044922E+00 4.252930E+00
1.000000E+00 1.044922E+00 4.243164E+00
1.000000E+00 1.044922E+00 4.238281E+00
1.000000E+00 1.044922E+00 4.228516E+00
1.000000E+00 1.044922E+00 4.213867E+00
1.000000E+00 1.040039E+00 4.213867E+00
1.000000E+00 1.044922E+00 4.204102E+00
1.000000E+00 1.044922E+00 4.194336E+00
1.000000E+00 1.044922E+00 4.189453E+00
1.000000E+00 1.044922E+00 4.179688E+00
2.000000E+00 1.040039E+00 4.184570E+00
2.000000E+00 1.044922E+00 4.184570E+00
2.000000E+00 1.044922E+00 4.189453E+00
2.000000E+00 1.044922E+00 4.194336E+00
5.000000E-01 1.044922E+00 4.204102E+00
5.000000E-01 1.044922E+00 4.208984E+00
5.000000E-01 1.040039E+00 4.208984E+00
3.000000E+00 1.044922E+00 4.199219E+00
3.000000E+00 1.044922E+00 4.204102E+00
3.000000E+00 1.044922E+00 4.204102E+00
3.000000E+00 1.044922E+00 4.213867E+00
3.000000E+00 1.040039E+00 4.223633E+00
3.000000E+00 1.044922E+00 4.218750E+00
3.000000E+00 1.040039E+00 4.204102E+00
5.000000E-01 1.044922E+00 4.189453E+00
5.000000E-01 1.044922E+00 4.199219E+00
5.000000E-01 1.044922E+00 4.223633E+00
5.000000E-01 1.044922E+00 4.238281E+00
4.000000E+00 1.044922E+00 4.228516E+00
4.000000E+00 1.044922E+00 4.213867E+00
4.000000E+00 1.044922E+00 4.223633E+00
4.000000E+00 1.040039E+00 4.223633E+00
1.000000E+00 1.044922E+00 4.218750E+00
1.000000E+00 1.040039E+00 4.218750E+00
1.000000E+00 1.044922E+00 4.223633E+00
3.000000E+00 1.044922E+00 4.228516E+00
3.000000E+00 1.044922E+00 4.223633E+00
3.000000E+00 1.044922E+00 4.238281E+00
3.000000E+00 1.044922E+00 4.243164E+00
3.000000E+00 1.044922E+00 4.238281E+00
3.000000E+00 1.044922E+00 4.228516E+00
2.000000E+00 1.044922E+00 4.228516E+00
2.000000E+00 1.044922E+00 4.228516E+00
2.000000E+00 1.044922E+00 4.223633E+00
2.500000E+00 1.044922E+00 4.223633E+00
2.500000E+00 1.044922E+00 4.223633E+00
2.500000E+00 1.044922E+00 4.218750E+00
2.500000E+00 1.049805E+00 4.223633E+00
2.500000E+00 1.044922E+00 4.228516E+00
0.000000E+00 1.044922E+00 4.218750E+00
0.000000E+00 1.044922E+00 4.238281E+00
0.000000E+00 1.044922E+00 4.228516E+00
0.000000E+00 1.044922E+00 4.238281E+00
0.000000E+00 1.044922E+00 4.228516E+00
0.000000E+00 1.040039E+00 4.223633E+00
0.000000E+00 1.044922E+00 4.228516E+00
0.000000E+00 1.040039E+00 4.243164E+00
0.000000E+00 1.049805E+00 4.243164E+00
0.000000E+00 1.044922E+00 4.238281E+00
3.000000E+00 1.049805E+00 4.248047E+00
3.000000E+00 1.044922E+00 4.243164E+00
3.000000E+00 1.044922E+00 4.233398E+00
3.000000E+00 1.044922E+00 4.238281E+00
3.000000E+00 1.044922E+00 4.233398E+00
3.000000E+00 1.044922E+00 4.238281E+00
3.000000E+00 1.044922E+00 4.243164E+00
3.000000E+00 1.040039E+00 4.252930E+00
3.000000E+00 1.044922E+00 4.248047E+00
0.000000E+00 1.044922E+00 4.228516E+00
0.000000E+00 1.044922E+00 4.218750E+00
0.000000E+00 1.040039E+00 4.223633E+00
0.000000E+00 1.044922E+00 4.223633E+00
0.000000E+00 1.044922E+00 4.208984E+00
0.000000E+00 1.044922E+00 4.204102E+00
0.000000E+00 1.044922E+00 4.204102E+00
3.500000E+00 1.044922E+00 4.204102E+00
3.500000E+00 1.044922E+00 4.204102E+00
3.500000E+00 1.044922E+00 4.179688E+00
3.500000E+00 1.044922E+00 4.184570E+00
3.500000E+00 1.044922E+00 4.179688E+00
3.500000E+00 1.040039E+00 4.174805E+00
3.500000E+00 1.044922E+00 4.184570E+00
3.500000E+00 1.044922E+00 4.194336E+00
3.500000E+00 1.044922E+00 4.184570E+00
3.500000E+00 1.044922E+00 4.199219E+00
3.500000E+00 1.044922E+00 4.213867E+00
5.000000E-01 1.040039E+00 4.208984E+00
5.000000E-01 1.044922E+00 4.213867E+00
5.000000E-01 1.040039E+00 4.204102E+00
5.000000E-01 1.044922E+00 4.199219E+00
5.000000E-01 1.044922E+00 4.208984E+00
5.000000E-01 1.044922E+00 4.218750E+00
5.000000E-01 1.044922E+00 4.228516E+00
5.000000E-01 1.040039E+00 4.218750E+00
5.000000E-01 1.044922E+00 4.218750E+00
5.000000E-01 1.044922E+00 4.218750E+00
5.500000E+00 1.044922E+00 4.223633E+00
5.500000E+00 1.044922E+00 4.233398E+00
5.500000E+00 1.044922E+00 4.208984E+00
5.500000E+00 1.044922E+00 4.218750E+00
5.500000E+00 1.044922E+00 4.213867E+00
5.500000E+00 1.044922E+00 4.218750E+00
5.500000E+00 1.044922E+00 4.257812E+00
5.500000E+00 1.044922E+00 4.311523E+00
2.500000E+00 1.044922E+00 4.355469E+00
2.500000E+00 1.044922E+00 4.399414E+00
2.500000E+00 1.044922E+00 4.443359E+00
2.500000E+00 1.040039E+00 4.482422E+00
2.500000E+00 1.044922E+00 4.487305E+00
5.000000E+00 1.040039E+00 4.492188E+00
5.000000E+00 1.044922E+00 4.472656E+00
5.000000E+00 1.040039E+00 4.458008E+00
5.000000E+00 1.044922E+00 4.443359E+00
5.000000E+00 1.044922E+00 4.428711E+00
5.000000E+00 1.044922E+00 4.409180E+00
5.000000E+00 1.044922E+00 4.414062E+00
1.500000E+00 1.044922E+00 4.423828E+00
1.500000E+00 1.040039E+00 4.428711E+00
1.500000E+00 1.044922E+00 4.443359E+00
1.500000E+00 1.049805E+00 4.467773E+00
1.500000E+00 1.044922E+00 4.458008E+00
1.500000E+00 1.044922E+00 4.438477E+00
4.500000E+00 1.044922E+00 4.423828E+00
4.500000E+00 1.044922E+00 4.399414E+00
4.500000E+00 1.044922E+00 4.365234E+00
4.500000E+00 1.044922E+00 4.355469E+00
4.500000E+00 1.044922E+00 4.331055E+00
3.000000E+00 1.040039E+00 4.326172E+00
3.000000E+00 1.040039E+00 4.326172E+00
3.000000E+00 1.040039E+00 4.326172E+00
3.000000E+00 1.044922E+00 4.340820E+00
3.000000E+00 1.044922E+00 4.340820E+00
3.000000E+00 1.044922E+00 4.345703E+00
3.000000E+00 1.044922E+00 4.335938E+00
3.000000E+00 1.044922E+00 4.311523E+00
3.000000E+00 1.044922E+00 4.316406E+00
3.000000E+00 1.044922E+00 4.316406E+00
3.000000E+00 1.044922E+00 4.321289E+00
3.000000E+00 1.040039E+00 4.321289E+00
3.000000E+00 1.044922E+00 4.301758E+00
3.000000E+00 1.040039E+00 4.282227E+00
3.000000E+00 1.044922E+00 4.272461E+00
2.000000E+00 1.044922E+00 4.267578E+00
2.000000E+00 1.044922E+00 4.252930E+00
2.000000E+00 1.044922E+00 4.238281E+00
2.000000E+00 1.044922E+00 4.233398E+00
4.500000E+00 1.040039E+00 4.218750E+00
4.500000E+00 1.044922E+00 4.218750E+00
4.500000E+00 1.040039E+00 4.218750E+00
4.500000E+00 1.044922E+00 4.218750E+00
4.500000E+00 1.044922E+00 4.218750E+00
2.500000E+00 1.049805E+00 4.233398E+00
2.500000E+00 1.044922E+00 4.257812E+00
2.500000E+00 1.044922E+00 4.272461E+00
4.500000E+00 1.040039E+00 4.272461E+00
4.500000E+00 1.044922E+00 4.287109E+00
4.500000E+00 1.044922E+00 4.287109E+00
4.500000E+00 1.049805E+00 4.287109E+00
4.500000E+00 1.040039E+00 4.301758E+00
4.500000E+00 1.049805E+00 4.301758E+00
1.000000E+00 1.040039E+00 4.291992E+00
1.000000E+00 1.044922E+00 4.321289E+00
1.000000E+00 1.044922E+00 4.340820E+00
1.000000E+00 1.044922E+00 4.340820E+00
1.050000E+01 1.044922E+00 4.331055E+00
1.050000E+01 1.044922E+00 4.326172E+00
1.050000E+01 1.044922E+00 4.326172E+00
1.050000E+01 1.044922E+00 4.340820E+00
1.050000E+01 1.044922E+00 4.428711E+00
1.050000E+01 1.049805E+00 4.594727E+00
1.050000E+01 1.044922E+00 4.863281E+00
1.050000E+01 1.044922E+00 5.175781E+00
1.050000E+01 1.044922E+00 5.473633E+00
1.050000E+01 1.044922E+00 5.791016E+00
8.500000E+00 1.044922E+00 6.074219E+00
8.500000E+00 1.040039E+00 6.362305E+00
8.500000E+00 1.044922E+00 6.577148E+00
8.500000E+00 1.044922E+00 6.777344E+00
8.500000E+00 1.044922E+00 6.875000E+00
8.500000E+00 1.049805E+00 6.938477E+00
8.500000E+00 1.044922E+00 6.972656E+00
8.500000E+00 1.044922E+00 6.982422E+00
8.500000E+00 1.044922E+00 6.962891E+00
8.500000E+00 1.040039E+00 6.953125E+00
1.000000E+01 1.049805E+00 6.933594E+00
1.000000E+01 1.044922E+00 6.909180E+00
1.000000E+01 1.044922E+00 6.879883E+00
1.000000E+01 1.040039E+00 6.894531E+00
1.000000E+01 1.044922E+00 6.943359E+00
1.000000E+01 1.040039E+00 7.036133E+00
1.000000E+01 1.035156E+00 7.109375E+00
7.500000E+00 1.049805E+00 7.192383E+00
7.500000E+00 1.044922E+00 7.280273E+00
7.500000E+00 1.044922E+00 7.387695E+00
7.500000E+00 1.044922E+00 7.465820E+00
7.500000E+00 1.044922E+00 7.495117E+00
7.500000E+00 1.079102E+00 7.451172E+00
7.500000E+00 1.044922E+00 7.382812E+00
7.500000E+00 1.040039E+00 7.265625E+00
7.500000E+00 1.044922E+00 7.133789E+00
1.100000E+01 1.044922E+00 7.011719E+00
1.100000E+01 1.044922E+00 6.875000E+00
1.100000E+01 1.040039E+00 6.762695E+00
1.100000E+01 1.044922E+00 6.699219E+00
1.100000E+01 1.044922E+00 6.699219E+00
8.500000E+00 1.044922E+00 6.757812E+00
8.500000E+00 1.040039E+00 6.884766E+00
8.500000E+00 1.044922E+00 6.977539E+00
8.500000E+00 1.040039E+00 7.094727E+00
8.500000E+00 1.044922E+00 7.182617E+00
8.500000E+00 1.040039E+00 7.197266E+00
8.500000E+00 1.044922E+00 7.177734E+00
1.000000E+01 1.040039E+00 7.182617E+00
1.000000E+01 1.044922E+00 7.148438E+00
1.000000E+01 1.044922E+00 7.119141E+00
1.000000E+01 1.044922E+00 7.104492E+00
1.000000E+01 1.040039E+00 7.143555E+00
1.000000E+01 1.040039E+00 7.226562E+00
1.000000E+01 1.044922E+00 7.265625E+00
9.000000E+00 1.040039E+00 7.358398E+00
9.000000E+00 1.040039E+00 7.480469E+00
9.000000E+00 1.049805E+00 7.543945E+00
9.000000E+00 1.044922E+00 7.592773E+00
1.000000E+01 1.040039E+00 7.631836E+00
1.000000E+01 1.044922E+00 7.651367E+00
1.000000E+01 1.044922E+00 7.656250E+00
1.000000E+01 1.044922E+00 7.636719E+00
1.000000E+01 1.044922E+00 7.646484E+00
1.000000E+01 1.044922E+00 7.651367E+00
1.000000E+01 1.044922E+00 7.680664E+00
1.000000E+01 1.044922E+00 7.680664E+00
1.000000E+01 1.049805E+00 7.709961E+00
1.000000E+01 1.044922E+00 7.709961E+00
7.000000E+00 1.044922E+00 7.783203E+00
7.000000E+00 1.044922E+00 7.802734E+00
7.000000E+00 1.040039E+00 7.836914E+00
7.000000E+00 1.044922E+00 7.861328E+00
7.000000E+00 1.044922E+00 7.822266E+00
7.000000E+00 1.044922E+00 7.734375E+00
7.000000E+00 1.044922E+00 7.597656E+00
7.000000E+00 1.044922E+00 7.436523E+00
7.000000E+00 1.040039E+00 7.260742E+00
8.500000E+00 1.044922E+00 7.070312E+00
8.500000E+00 1.044922E+00 6.933594E+00
8.500000E+00 1.044922E+00 6.806641E+00
8.500000E+00 1.044922E+00 6.669922E+00
8.500000E+00 1.044922E+00 6.606445E+00
8.500000E+00 1.044922E+00 6.557617E+00
8.500000E+00 1.044922E+00 6.547852E+00
8.500000E+00 1.049805E+00 6.572266E+00
8.500000E+00 1.044922E+00 6.606445E+00
8.500000E+00 1.049805E+00 6.625977E+00
8.500000E+00 1.040039E+00 6.669922E+00
8.500000E+00 1.044922E+00 6.694336E+00
4.500000E+00 1.040039E+00 6.743164E+00
4.500000E+00 1.044922E+00 6.811523E+00
4.500000E+00 1.044922E+00 6.831055E+00
4.500000E+00 1.044922E+00 6.831055E+00
4.500000E+00 1.044922E+00 6.767578E+00
4.500000E+00 1.044922E+00 6.635742E+00
4.500000E+00 1.044922E+00 6.479492E+00
4.500000E+00 1.044922E+00 6.328125E+00
4.500000E+00 1.040039E+00 6.142578E+00
4.500000E+00 1.044922E+00 5.947266E+00
4.500000E+00 1.044922E+00 5.810547E+00
9.500000E+00 1.044922E+00 5.668945E+00
9.500000E+00 1.044922E+00 5.551758E+00
9.500000E+00 1.044922E+00 5.434570E+00
9.500000E+00 1.044922E+00 5.375977E+00
9.500000E+00 1.044922E+00 5.385742E+00
4.500000E+00 1.040039E+00 5.478516E+00
4.500000E+00 1.044922E+00 5.610352E+00
4.500000E+00 1.040039E+00 5.805664E+00
4.500000E+00 1.044922E+00 5.996094E+00
4.500000E+00 1.044922E+00 6.103516E+00
